ply
format ascii 1.0
element vertex 853
property float x
property float y
property float z
property float nx
property float ny
property float nz
property uchar red
property uchar green
property uchar blue
end_header
-2.84689 -1.2546 -0.00345421 0.9551 0.2962 0.0008 204 168 112
-3.16937 -0.220879 2.36485 0.9551 0.2962 0.0008 204 168 112
-3.1166 -0.38842 1.35627 0.9551 0.2962 0.0008 204 168 112
-3.00836 -0.735872 0.747598 0.9551 0.2962 0.0008 204 168 112
-3.18401 -0.169877 0.896392 0.9551 0.2962 0.0008 204 168 112
-2.8156 -1.35519 -0.128608 0.9551 0.2962 0.0008 204 168 112
-2.96508 -0.876396 1.11511 0.9551 0.2962 0.0008 204 168 112
-2.86531 -1.19696 0.67798 0.9551 0.2962 0.0008 204 168 112
-2.98003 -0.825477 0.05746 0.9551 0.2962 0.0008 204 168 112
-3.15338 -0.267 0.249501 0.9551 0.2962 0.0008 204 168 112
-3.12071 -0.375166 1.34893 0.9551 0.2962 0.0008 204 168 112
-3.17554 -0.201973 2.75641 0.9551 0.2962 0.0008 204 168 112
-3.05099 -0.600299 1.48227 0.9551 0.2962 0.0008 204 168 112
-3.06858 -0.542221 0.951993 0.9551 0.2962 0.0008 204 168 112
-3.08197 -0.499631 1.1746 0.9551 0.2962 0.0008 204 168 112
-3.18998 -0.154976 2.58597 0.9551 0.2962 0.0008 204 168 112
-3.00578 -0.742379 0.0387639 0.9551 0.2962 0.0008 204 168 112
-2.73607 -1.61191 -0.0241981 0.9551 0.2962 0.0008 204 168 112
-3.08585 -0.487872 1.4681 0.9551 0.2962 0.0008 204 168 112
-3.06975 -0.541529 2.14483 0.9551 0.2962 0.0008 204 168 112
-3.17201 -0.206281 0.00209644 0.9551 0.2962 0.0008 204 168 112
-3.04819 -0.609417 1.51487 0.9551 0.2962 0.0008 204 168 112
-3.06578 -0.55422 2.11021 0.9551 0.2962 0.0008 204 168 112
-3.07413 -0.526033 1.61311 0.9551 0.2962 0.0008 204 168 112
-3.12293 -0.370532 2.33695 0.9551 0.2962 0.0008 204 168 112
-2.80692 -1.38329 -0.0830528 0.9551 0.2962 0.0008 204 168 112
-2.9809 -0.826468 1.54101 0.9551 0.2962 0.0008 204 168 112
-2.91015 -1.05062 -0.0137063 0.9551 0.2962 0.0008 204 168 112
-3.08307 -0.495222 0.837292 0.9551 0.2962 0.0008 204 168 112
-3.1075 -0.418214 1.53009 0.9551 0.2962 0.0008 204 168 112
-3.00288 -0.754568 1.13691 0.9551 0.2962 0.0008 204 168 112
-2.91534 -1.03416 0.0962368 0.9551 0.2962 0.0008 204 168 112
-2.80626 -1.38527 -0.146438 0.9551 0.2962 0.0008 204 168 112
-3.03228 -0.657767 0.368105 0.9551 0.2962 0.0008 204 168 112
-2.9826 -0.817669 0.247891 0.9551 0.2962 0.0008 204 168 112
-3.16981 -0.214262 0.352545 0.9551 0.2962 0.0008 204 168 112
-3.18429 -0.172098 2.11536 0.9551 0.2962 0.0008 204 168 112
-3.03944 -0.63455 0.307067 0.9551 0.2962 0.0008 204 168 112
-3.02857 -0.669334 0.208325 0.9551 0.2962 0.0008 204 168 112
-3.06542 -0.555069 1.98918 0.9551 0.2962 0.0008 204 168 112
-3.02898 -0.672201 1.84037 0.9551 0.2962 0.0008 204 168 112
-3.07467 -0.524341 1.63 0.9551 0.2962 0.0008 204 168 112
-3.12241 -0.370736 1.76313 0.9551 0.2962 0.0008 204 168 112
-2.98272 -0.818315 0.658022 0.9551 0.2962 0.0008 204 168 112
-2.90354 -1.07428 0.909123 0.9551 0.2962 0.0008 204 168 112
-3.1668 -0.222829 -0.0936005 0.9551 0.2962 0.0008 204 168 112
-3.16983 -0.214261 0.374473 0.9551 0.2962 0.0008 204 168 112
-3.06705 -0.548504 1.47244 0.9551 0.2962 0.0008 204 168 112
-3.07268 -0.531012 1.72603 0.9551 0.2962 0.0008 204 168 112
-3.07979 -0.505565 0.745431 0.9551 0.2962 0.0008 204 168 112
-3.02912 -0.670244 1.2499 0.9551 0.2962 0.0008 204 168 112
-3.10886 -0.411565 0.65181 0.9551 0.2962 0.0008 204 168 112
-3.08102 -0.499851 0.0655302 0.9551 0.2962 0.0008 204 168 112
-3.11575 -0.393006 2.07169 0.9551 0.2962 0.0008 204 168 112
-3.12341 -0.368749 2.23765 0.9551 0.2962 0.0008 204 168 112
-3.16621 -0.227777 1.09255 0.9551 0.2962 0.0008 204 168 112
-3.04435 -0.619314 0.548848 0.9551 0.2962 0.0008 204 168 112
-3.20538 -0.104413 2.23741 0.9551 0.2962 0.0008 204 168 112
-2.881 -1.14564 0.397044 0.9551 0.2962 0.0008 204 168 112
-2.75885 -1.53821 -0.119327 0.9551 0.2962 0.0008 204 168 112
-2.92518 -1.00248 0.123865 0.9551 0.2962 0.0008 204 168 112
-3.18187 -0.179157 1.82134 0.9551 0.2962 0.0008 204 168 112
-3.05704 -0.57926 0.887051 0.9551 0.2962 0.0008 204 168 112
-2.9825 -0.818323 0.375509 0.9551 0.2962 0.0008 204 168 112
-3.13222 -0.33506 0.184569 0.9551 0.2962 0.0008 204 168 112
-3.02755 -0.672903 0.313023 0.9551 0.2962 0.0008 204 168 112
-3.15931 -0.252845 2.18814 0.9551 0.2962 0.0008 204 168 112
-2.78282 -1.46131 0.0416526 0.9551 0.2962 0.0008 204 168 112
-3.00731 -0.737025 -0.121796 0.9551 0.2962 0.0008 204 168 112
-3.02303 -0.687938 0.501903 0.9551 0.2962 0.0008 204 168 112
-3.10226 -0.433647 0.963107 0.9551 0.2962 0.0008 204 168 112
-3.1774 -0.191494 1.00592 0.9551 0.2962 0.0008 204 168 112
-2.98166 -0.820213 0.0552183 0.9551 0.2962 0.0008 204 168 112
-3.05523 -0.583229 0.151192 0.9551 0.2962 0.0008 204 168 112
-3.16226 -0.242235 1.75434 0.9551 0.2962 0.0008 204 168 112
-3.18628 -0.160964 0.276482 0.9551 0.2962 0.0008 204 168 112
-3.09625 -0.452919 0.915669 0.9551 0.2962 0.0008 204 168 112
-2.99098 -0.789946 -0.0287194 0.9551 0.2962 0.0008 204 168 112
-3.06663 -0.549542 1.34741 0.9551 0.2962 0.0008 204 168 112
-3.19746 -0.12682 1.0096 0.9551 0.2962 0.0008 204 168 112
-3.00807 -0.738858 1.54446 0.9551 0.2962 0.0008 204 168 112
-3.11716 -0.385891 1.06972 0.9551 0.2962 0.0008 204 168 112
-3.16446 -0.232488 0.721819 0.9551 0.2962 0.0008 204 168 112
-3.01943 -0.700802 0.988326 0.9551 0.2962 0.0008 204 168 112
-3.19995 -0.121712 2.14635 0.9551 0.2962 0.0008 204 168 112
-2.99201 -0.789445 1.06988 0.9551 0.2962 0.0008 204 168 112
-3.14097 -0.313181 2.65433 0.9551 0.2962 0.0008 204 168 112
-3.10057 -0.442725 2.37061 0.9551 0.2962 0.0008 204 168 112
-3.17219 -0.210366 1.82094 0.9551 0.2962 0.0008 204 168 112
-3.10543 -0.420612 -0.140416 0.9551 0.2962 0.0008 204 168 112
-3.13719 -0.324657 2.37758 0.9551 0.2962 0.0008 204 168 112
-2.81215 -1.3674 0.289758 0.9551 0.2962 0.0008 204 168 112
-3.15031 -0.27966 1.33099 0.9551 0.2962 0.0008 204 168 112
-3.13137 -0.339925 1.01895 0.9551 0.2962 0.0008 204 168 112
-2.90239 -1.07739 0.675187 0.9551 0.2962 0.0008 204 168 112
-2.93696 -0.967108 1.13925 0.9551 0.2962 0.0008 204 168 112
-3.15411 -0.26809 1.5941 0.9551 0.2962 0.0008 204 168 112
-3.14027 -0.308557 -0.0223976 0.9551 0.2962 0.0008 204 168 112
-3.01512 -0.712948 0.306433 0.9551 0.2962 0.0008 204 168 112
-2.8452 -1.26117 0.42661 0.9551 0.2962 0.0008 204 168 112
-3.07523 -0.519579 0.484785 0.9551 0.2962 0.0008 204 168 112
-3.17173 -0.214566 2.87533 0.9551 0.2962 0.0008 204 168 112
-2.76265 -1.5259 -0.141187 0.9551 0.2962 0.0008 204 168 112
-3.14451 -0.301434 2.52847 0.9551 0.2962 0.0008 204 168 112
-2.84015 -1.27687 0.19717 0.9551 0.2962 0.0008 204 168 112
-2.83265 -1.3015 0.373004 0.9551 0.2962 0.0008 204 168 112
-3.11386 -0.398651 1.89417 0.9551 0.2962 0.0008 204 168 112
-2.82627 -1.3219 0.302652 0.9551 0.2962 0.0008 204 168 112
-3.13852 -0.318195 1.52606 0.9551 0.2962 0.0008 204 168 112
-2.83694 -1.28675 0.0149914 0.9551 0.2962 0.0008 204 168 112
-3.18119 -0.180018 1.30051 0.9551 0.2962 0.0008 204 168 112
-3.13328 -0.334558 1.32645 0.9551 0.2962 0.0008 204 168 112
-3.04164 -0.628894 0.870205 0.9551 0.2962 0.0008 204 168 112
-2.98954 -0.79446 -0.0766249 0.9551 0.2962 0.0008 204 168 112
-3.05569 -0.583956 1.01401 0.9551 0.2962 0.0008 204 168 112
-3.2043 -0.107426 2.04592 0.9551 0.2962 0.0008 204 168 112
-2.78031 -1.4694 0.0296636 0.9551 0.2962 0.0008 204 168 112
-3.04342 -0.623159 0.870679 0.9551 0.2962 0.0008 204 168 112
-3.19943 -0.119592 0.674351 0.9551 0.2962 0.0008 204 168 112
-2.7591 -1.53764 -0.0249339 0.9551 0.2962 0.0008 204 168 112
-3.13216 -0.340362 2.17394 0.9551 0.2962 0.0008 204 168 112
-3.05737 -0.576831 0.346156 0.9551 0.2962 0.0008 204 168 112
-3.11839 -0.382314 1.22723 0.9551 0.2962 0.0008 204 168 112
-3.07552 -0.517431 0.00729104 0.9551 0.2962 0.0008 204 168 112
-2.80585 -1.38779 0.323082 0.9551 0.2962 0.0008 204 168 112
-3.09846 -0.44875 2.06432 0.9551 0.2962 0.0008 204 168 112
-2.80854 -1.37877 0.185351 0.9551 0.2962 0.0008 204 168 112
-3.02075 -0.694248 0.0899646 0.9551 0.2962 0.0008 204 168 112
-3.14966 -0.280799 0.953522 0.9551 0.2962 0.0008 204 168 112
-2.97458 -0.845565 1.0411 0.9551 0.2962 0.0008 204 168 112
-2.96695 -0.867498 0.000863605 0.9551 0.2962 0.0008 204 168 112
-3.10404 -0.429772 1.68007 0.9551 0.2962 0.0008 204 168 112
-3.0164 -0.710393 0.910089 0.9551 0.2962 0.0008 204 168 112
-2.97472 -0.845932 1.35782 0.9551 0.2962 0.0008 204 168 112
-2.99078 -0.790511 -0.0538142 0.9551 0.2962 0.0008 204 168 112
-2.96979 -0.861819 1.35239 0.9551 0.2962 0.0008 204 168 112
-3.09454 -0.460975 1.91089 0.9551 0.2962 0.0008 204 168 112
-3.11215 -0.404755 2.12329 0.9551 0.2962 0.0008 204 168 112
-3.01724 -0.707574 0.878888 0.9551 0.2962 0.0008 204 168 112
-3.0244 -0.682311 0.0289551 0.9551 0.2962 0.0008 204 168 112
-3.10457 -0.428452 1.83466 0.9551 0.2962 0.0008 204 168 112
-3.03072 -0.662099 0.0941448 0.9551 0.2962 0.0008 204 168 112
-3.08926 -0.478919 2.25863 0.9551 0.2962 0.0008 204 168 112
-3.06968 -0.537068 0.318878 0.9551 0.2962 0.0008 204 168 112
-3.19366 -0.141272 1.87559 0.9551 0.2962 0.0008 204 168 112
-3.02253 -0.689164 0.348724 0.9551 0.2962 0.0008 204 168 112
-3.05244 -0.59625 1.72482 0.9551 0.2962 0.0008 204 168 112
-3.18021 -0.186932 2.76874 0.9551 0.2962 0.0008 204 168 112
-3.15146 -0.274506 0.769183 0.9551 0.2962 0.0008 204 168 112
-2.83543 -1.29303 0.561938 0.9551 0.2962 0.0008 204 168 112
-3.01396 -0.718661 1.06772 0.9551 0.2962 0.0008 204 168 112
-3.06562 -0.553482 1.61496 0.9551 0.2962 0.0008 204 168 112
-2.93115 -0.984885 0.763737 0.9551 0.2962 0.0008 204 168 112
-2.87043 -1.18079 0.809095 0.9551 0.2962 0.0008 204 168 112
-3.05475 -0.587894 1.3669 0.9551 0.2962 0.0008 204 168 112
-3.11834 -0.380456 0.441517 0.9551 0.2962 0.0008 204 168 112
-3.12635 -0.358232 1.83321 0.9551 0.2962 0.0008 204 168 112
-3.00717 -0.740377 1.00576 0.9551 0.2962 0.0008 204 168 112
-3.05819 -0.573455 0.0612302 0.9551 0.2962 0.0008 204 168 112
-3.09629 -0.452639 0.86074 0.9551 0.2962 0.0008 204 168 112
-3.05388 -0.58932 0.827743 0.9551 0.2962 0.0008 204 168 112
-2.90415 -1.0697 -0.108852 0.9551 0.2962 0.0008 204 168 112
-3.03638 -0.643397 -0.0812045 0.9551 0.2962 0.0008 204 168 112
-3.07393 -0.524181 0.636445 0.9551 0.2962 0.0008 204 168 112
-2.85501 -1.23014 0.661977 0.9551 0.2962 0.0008 204 168 112
-3.19457 -0.135383 0.723383 0.9551 0.2962 0.0008 204 168 112
-3.09273 -0.465967 1.57303 0.9551 0.2962 0.0008 204 168 112
-3.12256 -0.366454 0.282837 0.9551 0.2962 0.0008 204 168 112
-3.0831 -0.496709 1.45129 0.9551 0.2962 0.0008 204 168 112
-3.14519 -0.298807 2.35555 0.9551 0.2962 0.0008 204 168 112
-3.02373 -0.687262 1.11097 0.9551 0.2962 0.0008 204 168 112
-3.0033 -0.753995 1.44731 0.9551 0.2962 0.0008 204 168 112
-2.88956 -1.11921 0.851199 0.9551 0.2962 0.0008 204 168 112
-3.13073 -0.342923 1.37451 0.9551 0.2962 0.0008 204 168 112
-2.90139 -1.08123 0.917208 0.9551 0.2962 0.0008 204 168 112
-3.16405 -0.237337 2.10443 0.9551 0.2962 0.0008 204 168 112
-3.15623 -0.262994 2.27503 0.9551 0.2962 0.0008 204 168 112
-3.03671 -0.647476 1.91756 0.9551 0.2962 0.0008 204 168 112
-2.9288 -0.990919 0.166332 0.9551 0.2962 0.0008 204 168 112
-3.08508 -0.49106 1.74878 0.9551 0.2962 0.0008 204 168 112
-3.11671 -0.385163 0.221287 0.9551 0.2962 0.0008 204 168 112
-2.84044 -1.27603 0.236478 0.9551 0.2962 0.0008 204 168 112
-3.17712 -0.189924 0.0419039 0.9551 0.2962 0.0008 204 168 112
-3.16615 -0.229174 1.55975 0.9551 0.2962 0.0008 204 168 112
-3.20137 -0.112643 0.400387 0.9551 0.2962 0.0008 204 168 112
-3.1476 -0.288774 1.47782 0.9551 0.2962 0.0008 204 168 112
-3.02604 -0.681138 1.62937 0.9551 0.2962 0.0008 204 168 112
-2.85734 -1.22281 0.737751 0.9551 0.2962 0.0008 204 168 112
-3.15087 -0.27964 2.01895 0.9551 0.2962 0.0008 204 168 112
-2.95508 -0.907895 0.833915 0.9551 0.2962 0.0008 204 168 112
-2.82224 -1.33487 0.301241 0.9551 0.2962 0.0008 204 168 112
-2.88566 -1.132 0.924997 0.9551 0.2962 0.0008 204 168 112
-3.03627 -0.648236 1.66131 0.9551 0.2962 0.0008 204 168 112
-3.01327 -0.721102 1.15775 0.9551 0.2962 0.0008 204 168 112
-2.81719 -1.35076 0.140276 0.9551 0.2962 0.0008 204 168 112
-2.77759 -1.47805 -0.012741 0.9551 0.2962 0.0008 204 168 112
-3.02945 -0.668652 1.04799 0.9551 0.2962 0.0008 204 168 112
-3.14591 -0.291809 0.538416 0.9551 0.2962 0.0008 204 168 112
-2.95487 -0.909669 1.25192 0.9551 0.2962 0.0008 204 168 112
-3.20468 -0.108621 2.99099 0.9551 0.2962 0.0008 204 168 112
-3.13082 -0.342919 1.48764 0.9551 0.2962 0.0008 204 168 112
-2.96697 -0.867125 -0.116328 0.9551 0.2962 0.0008 204 168 112
-3.19176 -0.148313 2.22109 0.9551 0.2962 0.0008 204 168 112
-3.13577 -0.328148 1.95609 0.9551 0.2962 0.0008 204 168 112
-3.0919 -0.465159 0.222349 0.9551 0.2962 0.0008 204 168 112
-2.95172 -0.919636 1.17617 0.9551 0.2962 0.0008 204 168 112
-3.10564 -0.421999 0.66612 0.9551 0.2962 0.0008 204 168 112
-3.01069 -0.730026 1.39752 0.9551 0.2962 0.0008 204 168 112
-3.12121 -0.374777 1.82249 0.9551 0.2962 0.0008 204 168 112
-3.09213 -0.46357 -0.103573 0.9551 0.2962 0.0008 204 168 112
-2.86592 -1.19387 0.239392 0.9551 0.2962 0.0008 204 168 112
-3.17481 -0.197257 -0.00272059 0.9551 0.2962 0.0008 204 168 112
-2.80915 -1.37606 -0.0965795 0.9551 0.2962 0.0008 204 168 112
-2.99994 -0.763225 0.818477 0.9551 0.2962 0.0008 204 168 112
-2.77583 -1.48359 -0.06157 0.9551 0.2962 0.0008 204 168 112
-3.04451 -0.61903 0.632902 0.9551 0.2962 0.0008 204 168 112
-3.1741 -0.204813 2.05117 0.9551 0.2962 0.0008 204 168 112
-2.87408 -1.16829 0.521559 0.9551 0.2962 0.0008 204 168 112
-3.19623 -0.128165 -0.00128107 0.9551 0.2962 0.0008 204 168 112
-3.07399 -0.525109 1.07281 0.9551 0.2962 0.0008 204 168 112
-2.92285 -1.01084 0.452624 0.9551 0.2962 0.0008 204 168 112
-2.82105 -1.33826 0.123887 0.9551 0.2962 0.0008 204 168 112
-2.99282 -0.786255 0.846787 0.9551 0.2962 0.0008 204 168 112
-3.20213 -0.114755 2.18101 0.9551 0.2962 0.0008 204 168 112
-3.15563 -0.264596 2.14511 0.9551 0.2962 0.0008 204 168 112
-3.19031 -0.148178 0.357708 0.9551 0.2962 0.0008 204 168 112
-2.97745 -0.834307 0.261412 0.9551 0.2962 0.0008 204 168 112
-2.83321 -1.29981 0.411018 0.9551 0.2962 0.0008 204 168 112
-3.09863 -0.444467 0.61275 0.9551 0.2962 0.0008 204 168 112
-3.08816 -0.479144 0.975705 0.9551 0.2962 0.0008 204 168 112
-3.14181 -0.309247 2.17025 0.9551 0.2962 0.0008 204 168 112
-3.18705 -0.1654 2.96431 0.9551 0.2962 0.0008 204 168 112
-3.12984 -0.34407 0.703245 0.9551 0.2962 0.0008 204 168 112
-3.11519 -0.389772 0.104563 0.9551 0.2962 0.0008 204 168 112
-3.10906 -0.410071 0.319266 0.9551 0.2962 0.0008 204 168 112
-3.11063 -0.407877 1.43302 0.9551 0.2962 0.0008 204 168 112
-3.09136 -0.467131 0.313521 0.9551 0.2962 0.0008 204 168 112
-2.79677 -1.41638 0.0538859 0.9551 0.2962 0.0008 204 168 112
-3.09938 -0.441652 0.457442 0.9551 0.2962 0.0008 204 168 112
-3.11943 -0.377257 0.562128 0.9551 0.2962 0.0008 204 168 112
-3.16114 -0.241251 -0.0316824 0.9551 0.2962 0.0008 204 168 112
-3.09324 -0.462973 1.05793 0.9551 0.2962 0.0008 204 168 112
-3.15161 -0.275058 1.16912 0.9551 0.2962 0.0008 204 168 112
-2.94198 -0.95094 1.13758 0.9551 0.2962 0.0008 204 168 112
-3.02313 -0.687098 0.290649 0.9551 0.2962 0.0008 204 168 112
-3.17081 -0.213018 1.12029 0.9551 0.2962 0.0008 204 168 112
-3.18411 -0.173313 2.35627 0.9551 0.2962 0.0008 204 168 112
-2.99144 -0.79151 1.16638 0.9551 0.2962 0.0008 204 168 112
-3.0175 -0.707472 1.15666 0.9551 0.2962 0.0008 204 168 112
-2.83563 -1.29154 0.23913 0.9551 0.2962 0.0008 204 168 112
-2.99824 -0.770165 1.39254 0.9551 0.2962 0.0008 204 168 112
-2.92015 -1.01995 0.60003 0.9551 0.2962 0.0008 204 168 112
-3.15505 -0.26722 2.44056 0.9551 0.2962 0.0008 204 168 112
-3.01581 -0.713668 1.44673 0.9551 0.2962 0.0008 204 168 112
-2.97571 -0.843015 1.46525 0.9551 0.2962 0.0008 204 168 112
-2.93106 -0.986283 1.19682 0.9551 0.2962 0.0008 204 168 112
-3.08629 -0.484417 0.680221 0.9551 0.2962 0.0008 204 168 112
-3.05653 -0.578441 -0.0824775 0.9551 0.2962 0.0008 204 168 112
-3.15758 -0.253557 0.294232 0.9551 0.2962 0.0008 204 168 112
-3.20442 -0.109653 3.07492 0.9551 0.2962 0.0008 204 168 112
-2.9827 -0.818595 0.734699 0.9551 0.2962 0.0008 204 168 112
-3.15141 -0.278134 2.11299 0.9551 0.2962 0.0008 204 168 112
-3.00214 -0.755244 0.481304 0.9551 0.2962 0.0008 204 168 112
-3.08655 -0.482641 0.313565 0.9551 0.2962 0.0008 204 168 112
-3.19369 -0.137645 0.493809 0.9551 0.2962 0.0008 204 168 112
-3.01232 -0.721043 -0.0629973 0.9551 0.2962 0.0008 204 168 112
-3.12906 -0.350326 2.16132 0.9551 0.2962 0.0008 204 168 112
-2.90173 -1.07843 0.254679 0.9551 0.2962 0.0008 204 168 112
-3.20019 -0.119472 1.58208 0.9551 0.2962 0.0008 204 168 112
-3.16269 -0.24036 1.57229 0.9551 0.2962 0.0008 204 168 112
-3.12672 -0.352734 0.157003 0.9551 0.2962 0.0008 204 168 112
-3.17573 -0.19834 1.57506 0.9551 0.2962 0.0008 204 168 112
-3.19132 -0.146933 1.13312 0.9551 0.2962 0.0008 204 168 112
-2.98754 -0.80234 0.479662 0.9551 0.2962 0.0008 204 168 112
-3.0528 -0.591682 0.393337 0.9551 0.2962 0.0008 204 168 112
-3.16718 -0.223559 0.669983 0.9551 0.2962 0.0008 204 168 112
-3.03426 -0.65435 1.52054 0.9551 0.2962 0.0008 204 168 112
-2.95202 -0.917579 0.761297 0.9551 0.2962 0.0008 204 168 112
-3.01813 -0.705683 1.25388 0.9551 0.2962 0.0008 204 168 112
-2.90386 -1.07083 -0.0394559 0.9551 0.2962 0.0008 204 168 112
-3.16874 -0.220715 1.51042 0.9551 0.2962 0.0008 204 168 112
-3.08786 -0.481665 1.57287 0.9551 0.2962 0.0008 204 168 112
-2.87153 -1.17536 0.0672752 0.9551 0.2962 0.0008 204 168 112
-2.99359 -0.782323 0.281224 0.9551 0.2962 0.0008 204 168 112
-3.08218 -0.496091 0.0634198 0.9551 0.2962 0.0008 204 168 112
-3.16636 -0.224797 0.121007 0.9551 0.2962 0.0008 204 168 112
-3.13723 -0.319357 0.364754 0.9551 0.2962 0.0008 204 168 112
-3.19504 -0.139736 3.00517 0.9551 0.2962 0.0008 204 168 112
-3.05927 -0.570349 0.211611 0.9551 0.2962 0.0008 204 168 112
-2.89384 -1.10437 0.448101 0.9551 0.2962 0.0008 204 168 112
-3.20235 -0.11391 2.13188 0.9551 0.2962 0.0008 204 168 112
-4.6991 -0.63451 3.13822 -0.0008 0 1 204 168 112
-4.2739 -1.79958 3.13856 -0.0008 0 1 204 168 112
-3.56552 -0.638516 3.13912 -0.0008 0 1 204 168 112
-3.90652 -0.651907 3.13885 -0.0008 0 1 204 168 112
-4.2826 -1.01102 3.13855 -0.0008 0 1 204 168 112
-3.5765 -0.799697 3.13912 -0.0008 0 1 204 168 112
-3.75408 -0.534687 3.13897 -0.0008 0 1 204 168 112
-4.35634 -1.19267 3.13849 -0.0008 0 1 204 168 112
-4.29758 -0.702355 3.13854 -0.0008 0 1 204 168 112
-4.32453 -1.5343 3.13852 -0.0008 0 1 204 168 112
-4.10529 -1.72977 3.13869 -0.0008 0 1 204 168 112
-4.51031 -0.696647 3.13837 -0.0008 0 1 204 168 112
-3.67488 -0.62457 3.13904 -0.0008 0 1 204 168 112
-3.85365 -0.588562 3.13889 -0.0008 0 1 204 168 112
-4.35488 -1.82583 3.1385 -0.0008 0 1 204 168 112
-3.56175 -0.696806 3.13913 -0.0008 0 1 204 168 112
-4.50173 -0.578071 3.13838 -0.0008 0 1 204 168 112
-4.45593 -0.626568 3.13841 -0.0008 0 1 204 168 112
-3.88159 -1.24211 3.13887 -0.0008 0 1 204 168 112
-3.57116 -0.654511 3.13912 -0.0008 0 1 204 168 112
-4.35633 -0.521349 3.13849 -0.0008 0 1 204 168 112
-4.10319 -0.462704 3.1387 -0.0008 0 1 204 168 112
-4.40788 -0.940344 3.13845 -0.0008 0 1 204 168 112
-3.91728 -0.439386 3.13884 -0.0008 0 1 204 168 112
-3.93673 -0.372801 3.13883 -0.0008 0 1 204 168 112
-3.69862 -0.816222 3.13902 -0.0008 0 1 204 168 112
-4.51975 -0.892285 3.13836 -0.0008 0 1 204 168 112
-3.78459 -0.406576 3.13895 -0.0008 0 1 204 168 112
-4.06949 -0.573414 3.13872 -0.0008 0 1 204 168 112
-3.88585 -0.715888 3.13887 -0.0008 0 1 204 168 112
-4.34106 -0.483463 3.13851 -0.0008 0 1 204 168 112
-4.1957 -0.882885 3.13862 -0.0008 0 1 204 168 112
-4.30761 -0.796655 3.13853 -0.0008 0 1 204 168 112
-4.00676 -1.54557 3.13877 -0.0008 0 1 204 168 112
-3.30662 -0.188835 3.13933 -0.0008 0 1 204 168 112
-4.36763 -1.21225 3.13849 -0.0008 0 1 204 168 112
-3.62669 -0.881847 3.13908 -0.0008 0 1 204 168 112
-4.3703 -0.640617 3.13848 -0.0008 0 1 204 168 112
-4.34043 -0.726139 3.13851 -0.0008 0 1 204 168 112
-4.5849 -1.02853 3.13831 -0.0008 0 1 204 168 112
-3.57511 -0.717748 3.13912 -0.0008 0 1 204 168 112
-3.64744 -0.467495 3.13906 -0.0008 0 1 204 168 112
-3.97148 -0.421988 3.1388 -0.0008 0 1 204 168 112
-3.48863 -0.348039 3.13919 -0.0008 0 1 204 168 112
-4.07799 -1.16817 3.13872 -0.0008 0 1 204 168 112
-3.79196 -0.449838 3.13894 -0.0008 0 1 204 168 112
-3.86835 -1.08146 3.13888 -0.0008 0 1 204 168 112
-4.59927 -1.16369 3.1383 -0.0008 0 1 204 168 112
-4.07052 -1.36964 3.13872 -0.0008 0 1 204 168 112
-4.32084 -0.709227 3.13852 -0.0008 0 1 204 168 112
-3.60654 -0.435527 3.13909 -0.0008 0 1 204 168 112
-4.30656 -2.1457 3.13853 -0.0008 0 1 204 168 112
-4.03347 -0.363316 3.13875 -0.0008 0 1 204 168 112
-3.75039 -0.619968 3.13898 -0.0008 0 1 204 168 112
-4.01851 -0.562971 3.13876 -0.0008 0 1 204 168 112
-3.90354 -0.396875 3.13885 -0.0008 0 1 204 168 112
-4.66699 -0.670075 3.13825 -0.0008 0 1 204 168 112
-4.6363 -0.606161 3.13827 -0.0008 0 1 204 168 112
-4.25374 -0.794739 3.13858 -0.0008 0 1 204 168 112
-4.06013 -0.801316 3.13873 -0.0008 0 1 204 168 112
-3.64989 -0.569001 3.13906 -0.0008 0 1 204 168 112
-4.01373 -0.661364 3.13877 -0.0008 0 1 204 168 112
-3.74224 -0.5115 3.13898 -0.0008 0 1 204 168 112
-4.32441 -1.57187 3.13852 -0.0008 0 1 204 168 112
-3.70652 -0.33376 3.13901 -0.0008 0 1 204 168 112
-3.52364 -0.247755 3.13916 -0.0008 0 1 204 168 112
-4.02594 -0.963445 3.13876 -0.0008 0 1 204 168 112
-3.5792 -0.650305 3.13911 -0.0008 0 1 204 168 112
-3.86918 -1.33393 3.13888 -0.0008 0 1 204 168 112
-3.74736 -0.533288 3.13898 -0.0008 0 1 204 168 112
-3.7978 -0.780427 3.13894 -0.0008 0 1 204 168 112
-3.98803 -0.716187 3.13879 -0.0008 0 1 204 168 112
-3.68584 -0.354544 3.13903 -0.0008 0 1 204 168 112
-3.70282 -0.673548 3.13901 -0.0008 0 1 204 168 112
-4.485 -0.662971 3.13839 -0.0008 0 1 204 168 112
-3.63738 -0.245346 3.13907 -0.0008 0 1 204 168 112
-3.88708 -1.04441 3.13887 -0.0008 0 1 204 168 112
-4.261 -0.744209 3.13857 -0.0008 0 1 204 168 112
-4.12101 -1.27432 3.13868 -0.0008 0 1 204 168 112
-4.33558 -1.45852 3.13851 -0.0008 0 1 204 168 112
-3.8366 -0.574775 3.13891 -0.0008 0 1 204 168 112
-3.57174 -0.490183 3.13912 -0.0008 0 1 204 168 112
-4.03598 -0.68988 3.13875 -0.0008 0 1 204 168 112
-4.1058 -1.24315 3.13869 -0.0008 0 1 204 168 112
-4.60498 -0.635421 3.1383 -0.0008 0 1 204 168 112
-3.864 -0.724126 3.13889 -0.0008 0 1 204 168 112
-3.45304 -0.410367 3.13921 -0.0008 0 1 204 168 112
-4.26809 -1.7795 3.13856 -0.0008 0 1 204 168 112
-4.48068 -1.3407 3.1384 -0.0008 0 1 204 168 112
-3.65078 -0.597076 3.13906 -0.0008 0 1 204 168 112
-4.00412 -1.02303 3.13877 -0.0008 0 1 204 168 112
-4.1887 -0.617148 3.13863 -0.0008 0 1 204 168 112
-4.46901 -0.849156 3.1384 -0.0008 0 1 204 168 112
-3.65364 -0.314201 3.13905 -0.0008 0 1 204 168 112
-4.39379 -1.2054 3.13846 -0.0008 0 1 204 168 112
-3.84469 -0.839111 3.1389 -0.0008 0 1 204 168 112
-4.09654 -0.501173 3.1387 -0.0008 0 1 204 168 112
-4.30228 -1.19367 3.13854 -0.0008 0 1 204 168 112
-4.29162 -1.80457 3.13855 -0.0008 0 1 204 168 112
-3.63612 -0.279883 3.13907 -0.0008 0 1 204 168 112
-4.1099 -1.25131 3.13869 -0.0008 0 1 204 168 112
-4.23766 -1.57615 3.13859 -0.0008 0 1 204 168 112
-4.32397 -1.95019 3.13852 -0.0008 0 1 204 168 112
-4.26913 -1.67272 3.13856 -0.0008 0 1 204 168 112
-4.07081 -1.54387 3.13872 -0.0008 0 1 204 168 112
-4.34738 -0.554142 3.1385 -0.0008 0 1 204 168 112
-4.72957 -0.657339 3.1382 -0.0008 0 1 204 168 112
-4.49689 -0.564764 3.13838 -0.0008 0 1 204 168 112
-4.2036 -1.82748 3.13862 -0.0008 0 1 204 168 112
-3.83149 -0.535471 3.13891 -0.0008 0 1 204 168 112
-4.34323 -1.92208 3.1385 -0.0008 0 1 204 168 112
-4.0214 -1.60672 3.13876 -0.0008 0 1 204 168 112
-4.4744 -1.43056 3.1384 -0.0008 0 1 204 168 112
-3.37229 -0.168719 3.13928 -0.0008 0 1 204 168 112
-4.04408 -0.843708 3.13874 -0.0008 0 1 204 168 112
-3.67767 -0.756997 3.13903 -0.0008 0 1 204 168 112
-3.99205 -1.02927 3.13878 -0.0008 0 1 204 168 112
-3.39155 -0.175566 3.13926 -0.0008 0 1 204 168 112
-4.09541 -0.441022 3.1387 -0.0008 0 1 204 168 112
-4.00919 -0.616531 3.13877 -0.0008 0 1 204 168 112
-4.41748 -1.04149 3.13845 -0.0008 0 1 204 168 112
-4.25256 -2.07094 3.13858 -0.0008 0 1 204 168 112
-3.62141 -0.432761 3.13908 -0.0008 0 1 204 168 112
-4.32193 -2.11582 3.13852 -0.0008 0 1 204 168 112
-4.30685 -2.06226 3.13853 -0.0008 0 1 204 168 112
-4.20167 -0.491589 3.13862 -0.0008 0 1 204 168 112
-3.85015 -0.808143 3.1389 -0.0008 0 1 204 168 112
-3.95377 -1.40986 3.13881 -0.0008 0 1 204 168 112
-3.83585 -0.3031 3.13891 -0.0008 0 1 204 168 112
-4.10801 -1.23757 3.13869 -0.0008 0 1 204 168 112
-4.32384 -0.866189 3.13852 -0.0008 0 1 204 168 112
-3.82257 -1.06895 3.13892 -0.0008 0 1 204 168 112
-4.19159 -1.72358 3.13863 -0.0008 0 1 204 168 112
-4.09239 -0.676646 3.1387 -0.0008 0 1 204 168 112
-4.45187 -1.56694 3.13842 -0.0008 0 1 204 168 112
-4.48186 -1.61363 3.13839 -0.0008 0 1 204 168 112
-3.88472 -1.23059 3.13887 -0.0008 0 1 204 168 112
-3.30727 -0.26205 3.13933 -0.0008 0 1 204 168 112
-4.45283 -1.2031 3.13842 -0.0008 0 1 204 168 112
-4.14918 -1.44821 3.13866 -0.0008 0 1 204 168 112
-4.04078 -1.58033 3.13875 -0.0008 0 1 204 168 112
-3.74414 -0.70226 3.13898 -0.0008 0 1 204 168 112
-3.63056 -0.863473 3.13907 -0.0008 0 1 204 168 112
-4.50791 -0.825311 3.13837 -0.0008 0 1 204 168 112
-3.31889 -0.298011 3.13932 -0.0008 0 1 204 168 112
-4.38547 -1.61763 3.13847 -0.0008 0 1 204 168 112
-3.84995 -0.903596 3.1389 -0.0008 0 1 204 168 112
-3.62473 -0.321878 3.13908 -0.0008 0 1 204 168 112
-3.61527 -0.561903 3.13908 -0.0008 0 1 204 168 112
-4.31148 -1.16239 3.13853 -0.0008 0 1 204 168 112
-4.6289 -0.818859 3.13828 -0.0008 0 1 204 168 112
-3.52185 -0.450144 3.13916 -0.0008 0 1 204 168 112
-4.47764 -0.668777 3.1384 -0.0008 0 1 204 168 112
-3.84274 -1.00297 3.1389 -0.0008 0 1 204 168 112
-4.49478 -0.815757 3.13838 -0.0008 0 1 204 168 112
-4.34959 -0.569257 3.1385 -0.0008 0 1 204 168 112
-4.27193 -1.90686 3.13856 -0.0008 0 1 204 168 112
-4.68345 -0.811423 3.13823 -0.0008 0 1 204 168 112
-3.62865 -0.848942 3.13907 -0.0008 0 1 204 168 112
-4.4174 -1.31717 3.13845 -0.0008 0 1 204 168 112
-4.29595 -0.779072 3.13854 -0.0008 0 1 204 168 112
-3.54069 -0.527438 3.13914 -0.0008 0 1 204 168 112
-4.29621 -1.8627 3.13854 -0.0008 0 1 204 168 112
-4.68946 -0.882717 3.13823 -0.0008 0 1 204 168 112
-4.2403 -0.741997 3.13859 -0.0008 0 1 204 168 112
-4.27807 -1.65144 3.13856 -0.0008 0 1 204 168 112
-4.12348 -1.8069 3.13868 -0.0008 0 1 204 168 112
-4.4135 -1.4541 3.13845 -0.0008 0 1 204 168 112
-4.0598 -1.61449 3.13873 -0.0008 0 1 204 168 112
-4.55438 -0.538403 3.13834 -0.0008 0 1 204 168 112
-4.40354 -0.593372 3.13846 -0.0008 0 1 204 168 112
-4.19945 -1.29849 3.13862 -0.0008 0 1 204 168 112
-4.48375 -0.568374 3.13839 -0.0008 0 1 204 168 112
-4.27778 -1.86237 3.13856 -0.0008 0 1 204 168 112
-4.08602 -0.968215 3.13871 -0.0008 0 1 204 168 112
-3.77055 -0.574066 3.13896 -0.0008 0 1 204 168 112
-4.26253 -1.06339 3.13857 -0.0008 0 1 204 168 112
-4.24594 -0.819799 3.13858 -0.0008 0 1 204 168 112
-4.46268 -1.34898 3.13841 -0.0008 0 1 204 168 112
-4.41098 -1.26398 3.13845 -0.0008 0 1 204 168 112
-4.02099 -1.20399 3.13876 -0.0008 0 1 204 168 112
-4.40699 -1.4123 3.13845 -0.0008 0 1 204 168 112
-3.98489 -1.38188 3.13879 -0.0008 0 1 204 168 112
-4.55707 -1.02925 3.13833 -0.0008 0 1 204 168 112
-3.8437 -0.561582 3.1389 -0.0008 0 1 204 168 112
-3.85687 -1.06406 3.13889 -0.0008 0 1 204 168 112
-4.48364 -0.538785 3.13839 -0.0008 0 1 204 168 112
-4.21153 -0.806037 3.13861 -0.0008 0 1 204 168 112
-4.34092 -1.48611 3.13851 -0.0008 0 1 204 168 112
-3.33007 -0.3036 3.13931 -0.0008 0 1 204 168 112
-3.83969 -0.580591 3.13891 -0.0008 0 1 204 168 112
-4.21559 -1.14198 3.13861 -0.0008 0 1 204 168 112
-3.7744 -1.06634 3.13896 -0.0008 0 1 204 168 112
-4.15858 -1.4575 3.13865 -0.0008 0 1 204 168 112
-3.61094 -0.56079 3.13909 -0.0008 0 1 204 168 112
-4.18102 -1.15762 3.13863 -0.0008 0 1 204 168 112
-4.06039 -0.683467 3.13873 -0.0008 0 1 204 168 112
-3.97414 -0.387999 3.1388 -0.0008 0 1 204 168 112
-4.43508 -1.46652 3.13843 -0.0008 0 1 204 168 112
-4.4181 -1.44522 3.13844 -0.0008 0 1 204 168 112
-4.14473 -1.27846 3.13866 -0.0008 0 1 204 168 112
-3.59288 -0.777274 3.1391 -0.0008 0 1 204 168 112
-3.74941 -0.303781 3.13898 -0.0008 0 1 204 168 112
-3.36882 -0.200291 3.13928 -0.0008 0 1 204 168 112
-4.38299 -1.79789 3.13847 -0.0008 0 1 204 168 112
-4.49511 -1.37595 3.13838 -0.0008 0 1 204 168 112
-3.74578 -0.776123 3.13898 -0.0008 0 1 204 168 112
-4.46782 -1.03034 3.13841 -0.0008 0 1 204 168 112
-4.42491 -1.64219 3.13844 -0.0008 0 1 204 168 112
-3.73348 -0.598358 3.13899 -0.0008 0 1 204 168 112
-4.20371 -1.82258 3.13862 -0.0008 0 1 204 168 112
-4.18218 -0.805108 3.13863 -0.0008 0 1 204 168 112
-4.1762 -0.812004 3.13864 -0.0008 0 1 204 168 112
-4.72664 -0.63818 3.1382 -0.0008 0 1 204 168 112
-4.1727 -1.12636 3.13864 -0.0008 0 1 204 168 112
-4.18388 -1.93975 3.13863 -0.0008 0 1 204 168 112
-4.33582 -1.16245 3.13851 -0.0008 0 1 204 168 112
-3.97712 -0.364211 3.1388 -0.0008 0 1 204 168 112
-4.0414 -1.2646 3.13874 -0.0008 0 1 204 168 112
-4.42091 -1.26602 3.13844 -0.0008 0 1 204 168 112
-3.83357 -0.957218 3.13891 -0.0008 0 1 204 168 112
-3.50305 -0.31939 3.13917 -0.0008 0 1 204 168 112
-4.11555 -1.5319 3.13869 -0.0008 0 1 204 168 112
-4.51296 -1.46413 3.13837 -0.0008 0 1 204 168 112
-3.87929 -1.13144 3.13887 -0.0008 0 1 204 168 112
-4.32548 -1.24469 3.13852 -0.0008 0 1 204 168 112
-4.39125 -0.600997 3.13847 -0.0008 0 1 204 168 112
-3.68553 -0.576373 3.13903 -0.0008 0 1 204 168 112
-4.54637 -0.775902 3.13834 -0.0008 0 1 204 168 112
-4.39941 -1.4009 3.13846 -0.0008 0 1 204 168 112
-3.40693 -0.408942 3.13925 -0.0008 0 1 204 168 112
-3.92859 -1.44573 3.13883 -0.0008 0 1 204 168 112
-3.70189 -0.976098 3.13902 -0.0008 0 1 204 168 112
-3.97713 -1.48231 3.1388 -0.0008 0 1 204 168 112
-4.34428 -0.6779 3.1385 -0.0008 0 1 204 168 112
-4.12624 -0.793584 3.13868 -0.0008 0 1 204 168 112
-3.81733 -0.823177 3.13892 -0.0008 0 1 204 168 112
-4.21385 -1.43238 3.13861 -0.0008 0 1 204 168 112
-4.37334 -0.576901 3.13848 -0.0008 0 1 204 168 112
-3.92512 -0.635453 3.13884 -0.0008 0 1 204 168 112
-4.40784 -0.704959 3.13845 -0.0008 0 1 204 168 112
-3.91447 -1.28643 3.13885 -0.0008 0 1 204 168 112
-4.68541 -0.650885 3.13823 -0.0008 0 1 204 168 112
-4.52093 -0.918212 3.13836 -0.0008 0 1 204 168 112
-4.09219 -1.22713 3.1387 -0.0008 0 1 204 168 112
-4.3808 -1.53851 3.13847 -0.0008 0 1 204 168 112
-4.10327 -1.02738 3.1387 -0.0008 0 1 204 168 112
-4.41468 -1.77817 3.13845 -0.0008 0 1 204 168 112
-3.59308 -0.321871 3.1391 -0.0008 0 1 204 168 112
-4.50574 -0.550675 3.13838 -0.0008 0 1 204 168 112
-4.12217 -1.47658 3.13868 -0.0008 0 1 204 168 112
-4.36033 -1.62387 3.13849 -0.0008 0 1 204 168 112
-4.44706 -1.72257 3.13842 -0.0008 0 1 204 168 112
-4.00056 -1.2467 3.13878 -0.0008 0 1 204 168 112
-3.45945 -0.239897 3.13921 -0.0008 0 1 204 168 112
-3.91815 -0.729883 3.13884 -0.0008 0 1 204 168 112
-3.74012 -0.92146 3.13898 -0.0008 0 1 204 168 112
-4.31122 -1.23224 3.13853 -0.0008 0 1 204 168 112
-4.37244 -1.49922 3.13848 -0.0008 0 1 204 168 112
-4.52393 -1.17415 3.13836 -0.0008 0 1 204 168 112
-3.76145 -0.291484 3.13897 -0.0008 0 1 204 168 112
-4.23079 -1.80499 3.13859 -0.0008 0 1 204 168 112
-4.1722 -0.563918 3.13864 -0.0008 0 1 204 168 112
-4.16949 -1.57837 3.13864 -0.0008 0 1 204 168 112
-3.76019 -0.846288 3.13897 -0.0008 0 1 204 168 112
-3.99801 -1.47886 3.13878 -0.0008 0 1 204 168 112
-3.49455 -0.360383 3.13918 -0.0008 0 1 204 168 112
-3.97122 -1.26812 3.1388 -0.0008 0 1 204 168 112
-3.49296 -0.460736 3.13918 -0.0008 0 1 204 168 112
-4.28083 -1.5641 3.13855 -0.0008 0 1 204 168 112
-4.35866 -1.89173 3.13849 -0.0008 0 1 204 168 112
-4.66917 -0.640427 3.13825 -0.0008 0 1 204 168 112
-4.14385 -1.49248 3.13866 -0.0008 0 1 204 168 112
-3.44437 -0.306309 3.13922 -0.0008 0 1 204 168 112
-4.10089 -0.443226 3.1387 -0.0008 0 1 204 168 112
-4.24423 -0.768283 3.13858 -0.0008 0 1 204 168 112
-4.10769 -1.6455 3.13869 -0.0008 0 1 204 168 112
-4.24335 -0.555911 3.13858 -0.0008 0 1 204 168 112
-4.14289 -1.37579 3.13866 -0.0008 0 1 204 168 112
-3.92839 -0.610107 3.13883 -0.0008 0 1 204 168 112
-4.05913 -1.31835 3.13873 -0.0008 0 1 204 168 112
-4.74602 -0.753381 3.13818 -0.0008 0 1 204 168 112
-3.79494 -0.459797 3.13894 -0.0008 0 1 204 168 112
-3.64437 -0.495475 3.13906 -0.0008 0 1 204 168 112
-3.82669 -1.24393 3.13892 -0.0008 0 1 204 168 112
-4.04993 -0.977094 3.13874 -0.0008 0 1 204 168 112
-4.27907 -2.00669 3.13856 -0.0008 0 1 204 168 112
-3.35644 -0.355467 3.13929 -0.0008 0 1 204 168 112
-3.87121 -0.372185 3.13888 -0.0008 0 1 204 168 112
-4.63813 -0.998652 3.13827 -0.0008 0 1 204 168 112
-4.60672 -0.819124 3.13829 -0.0008 0 1 204 168 112
-4.1342 -0.513112 3.13867 -0.0008 0 1 204 168 112
-4.5672 -0.877035 3.13833 -0.0008 0 1 204 168 112
-4.26972 -0.830056 3.13856 -0.0008 0 1 204 168 112
-4.20637 -0.442525 3.13861 -0.0008 0 1 204 168 112
-4.39351 -1.15688 3.13846 -0.0008 0 1 204 168 112
-3.41303 -0.256181 3.13925 -0.0008 0 1 204 168 112
-4.17221 -0.680161 3.13864 -0.0008 0 1 204 168 112
-3.97151 -0.578169 3.1388 -0.0008 0 1 204 168 112
-4.41997 -0.792413 3.13844 -0.0008 0 1 204 168 112
-3.70006 -0.68544 3.13902 -0.0008 0 1 204 168 112
-3.77795 -0.706485 3.13895 -0.0008 0 1 204 168 112
-4.56022 -1.2579 3.13833 -0.0008 0 1 204 168 112
-3.86929 -0.452856 3.13888 -0.0008 0 1 204 168 112
-4.23775 -1.37641 3.13859 -0.0008 0 1 204 168 112
-4.13259 -0.886079 3.13867 -0.0008 0 1 204 168 112
-3.92015 -1.25706 3.13884 -0.0008 0 1 204 168 112
-4.37833 -1.07552 3.13848 -0.0008 0 1 204 168 112
-3.73168 -0.599477 3.13899 -0.0008 0 1 204 168 112
-3.83952 -0.665007 3.13891 -0.0008 0 1 204 168 112
-4.01836 -0.442556 3.13876 -0.0008 0 1 204 168 112
-4.31291 -1.89173 3.13853 -0.0008 0 1 204 168 112
-3.70367 -0.381937 3.13901 -0.0008 0 1 204 168 112
-3.82116 -0.888432 3.13892 -0.0008 0 1 204 168 112
-3.89322 -0.513199 3.13886 -0.0008 0 1 204 168 112
-3.82848 -0.801568 3.13891 -0.0008 0 1 204 168 112
-4.16507 -0.52619 3.13865 -0.0008 0 1 204 168 112
-4.36908 -0.933623 3.13848 -0.0008 0 1 204 168 112
-4.46743 -1.62847 3.13841 -0.0008 0 1 204 168 112
-3.95169 -1.19358 3.13882 -0.0008 0 1 204 168 112
-4.30107 -1.63024 3.13854 -0.0008 0 1 204 168 112
-4.07744 -1.60298 3.13872 -0.0008 0 1 204 168 112
-4.69185 -0.629408 3.13823 -0.0008 0 1 204 168 112
-3.50952 -0.521892 3.13917 -0.0008 0 1 204 168 112
-4.6005 -1.08264 3.1383 -0.0008 0 1 204 168 112
-3.93596 -0.433438 3.13883 -0.0008 0 1 204 168 112
-4.55888 -1.157 3.13833 -0.0008 0 1 204 168 112
-3.9516 -1.20331 3.13882 -0.0008 0 1 204 168 112
-4.20736 -1.49769 3.13861 -0.0008 0 1 204 168 112
-4.13935 -1.76373 3.13867 -0.0008 0 1 204 168 112
-3.74698 -0.707894 3.13898 -0.0008 0 1 204 168 112
-4.55813 -0.627946 3.13833 -0.0008 0 1 204 168 112
-3.66321 -0.726944 3.13905 -0.0008 0 1 204 168 112
-4.16277 -1.19212 3.13865 -0.0008 0 1 204 168 112
-4.24666 -1.65534 3.13858 -0.0008 0 1 204 168 112
-3.5696 -0.493067 3.13912 -0.0008 0 1 204 168 112
-4.58409 -0.96491 3.13831 -0.0008 0 1 204 168 112
-4.05153 -0.44948 3.13874 -0.0008 0 1 204 168 112
-4.0206 -1.01624 3.13876 -0.0008 0 1 204 168 112
-4.0344 -1.05795 3.13875 -0.0008 0 1 204 168 112
-4.54487 -0.842063 3.13834 -0.0008 0 1 204 168 112
-3.71127 -0.266349 3.13901 -0.0008 0 1 204 168 112
-4.37133 -0.726694 3.13848 -0.0008 0 1 204 168 112
-3.81614 -0.573776 3.13892 -0.0008 0 1 204 168 112
-4.6388 -0.734307 3.13827 -0.0008 0 1 204 168 112
-4.13129 -1.20607 3.13867 -0.0008 0 1 204 168 112
-3.46213 -0.461661 3.13921 -0.0008 0 1 204 168 112
-4.37251 -0.567533 3.13848 -0.0008 0 1 204 168 112
-4.6248 -1.03521 3.13828 -0.0008 0 1 204 168 112
-4.25345 -1.13764 3.13858 -0.0008 0 1 204 168 112
-4.08011 -0.53941 3.13871 -0.0008 0 1 204 168 112
-3.42174 -0.418061 3.13924 -0.0008 0 1 204 168 112
-4.4281 -1.2926 3.13844 -0.0008 0 1 204 168 112
-4.38261 -0.823511 3.13847 -0.0008 0 1 204 168 112
-3.48454 -1.92092 2.59167 0.2945 -0.9556 0.0002 204 168 112
-3.43878 -1.90711 1.40074 0.2945 -0.9556 0.0002 204 168 112
-3.16207 -1.82167 2.06054 0.2945 -0.9556 0.0002 204 168 112
-2.86429 -1.73022 0.76764 0.2945 -0.9556 0.0002 204 168 112
-3.04631 -1.78635 0.624631 0.2945 -0.9556 0.0002 204 168 112
-3.17842 -1.82646 3.09688 0.2945 -0.9556 0.0002 204 168 112
-3.5743 -1.94881 1.68459 0.2945 -0.9556 0.0002 204 168 112
-2.9854 -1.76724 2.01567 0.2945 -0.9556 0.0002 204 168 112
-2.77967 -1.70411 0.919527 0.2945 -0.9556 0.0002 204 168 112
-2.85987 -1.72845 2.42939 0.2945 -0.9556 0.0002 204 168 112
-3.55266 -1.94188 2.71866 0.2945 -0.9556 0.0002 204 168 112
-3.38229 -1.88974 1.26666 0.2945 -0.9556 0.0002 204 168 112
-2.90531 -1.74247 2.37062 0.2945 -0.9556 0.0002 204 168 112
-3.33495 -1.87502 1.77923 0.2945 -0.9556 0.0002 204 168 112
-2.97604 -1.76451 1.39979 0.2945 -0.9556 0.0002 204 168 112
-2.93887 -1.75331 0.340524 0.2945 -0.9556 0.0002 204 168 112
-3.83927 -2.03032 2.26382 0.2945 -0.9556 0.0002 204 168 112
-3.09974 -1.80245 2.14628 0.2945 -0.9556 0.0002 204 168 112
-2.76584 -1.69951 2.2846 0.2945 -0.9556 0.0002 204 168 112
-2.76825 -1.70052 1.18226 0.2945 -0.9556 0.0002 204 168 112
-2.86239 -1.72929 2.18997 0.2945 -0.9556 0.0002 204 168 112
-4.00031 -2.07986 2.61307 0.2945 -0.9556 0.0002 204 168 112
-3.61199 -1.9602 2.59555 0.2945 -0.9556 0.0002 204 168 112
-2.99024 -1.76846 3.11031 0.2945 -0.9556 0.0002 204 168 112
-2.78682 -1.70631 0.905723 0.2945 -0.9556 0.0002 204 168 112
-3.12495 -1.81055 0.770264 0.2945 -0.9556 0.0002 204 168 112
-2.92649 -1.74893 2.62913 0.2945 -0.9556 0.0002 204 168 112
-3.83879 -2.03009 2.60017 0.2945 -0.9556 0.0002 204 168 112
-3.00515 -1.7733 2.13187 0.2945 -0.9556 0.0002 204 168 112
-2.90868 -1.74357 2.12296 0.2945 -0.9556 0.0002 204 168 112
-3.52381 -1.93316 2.03476 0.2945 -0.9556 0.0002 204 168 112
-2.88258 -1.73582 0.935106 0.2945 -0.9556 0.0002 204 168 112
-2.79852 -1.71014 0.027672 0.2945 -0.9556 0.0002 204 168 112
-2.7415 -1.69189 2.76914 0.2945 -0.9556 0.0002 204 168 112
-3.61806 -1.96202 2.79532 0.2945 -0.9556 0.0002 204 168 112
-2.83948 -1.72222 2.21721 0.2945 -0.9556 0.0002 204 168 112
-2.78086 -1.70419 2.07598 0.2945 -0.9556 0.0002 204 168 112
-3.50641 -1.92781 1.98069 0.2945 -0.9556 0.0002 204 168 112
-3.15749 -1.8203 1.90405 0.2945 -0.9556 0.0002 204 168 112
-2.82414 -1.71738 2.6896 0.2945 -0.9556 0.0002 204 168 112
-3.09331 -1.80044 2.25841 0.2945 -0.9556 0.0002 204 168 112
-3.17573 -1.8259 2.00239 0.2945 -0.9556 0.0002 204 168 112
-2.82225 -1.71688 2.34029 0.2945 -0.9556 0.0002 204 168 112
-3.26373 -1.85282 2.80255 0.2945 -0.9556 0.0002 204 168 112
-3.34354 -1.87763 1.91913 0.2945 -0.9556 0.0002 204 168 112
-2.86454 -1.73025 0.983786 0.2945 -0.9556 0.0002 204 168 112
-2.71778 -1.68459 2.71196 0.2945 -0.9556 0.0002 204 168 112
-2.79172 -1.70805 0.00593252 0.2945 -0.9556 0.0002 204 168 112
-3.50343 -1.92671 2.7447 0.2945 -0.9556 0.0002 204 168 112
-2.89924 -1.7407 1.97796 0.2945 -0.9556 0.0002 204 168 112
-3.16796 -1.82355 1.83655 0.2945 -0.9556 0.0002 204 168 112
-4.08283 -2.10524 2.83085 0.2945 -0.9556 0.0002 204 168 112
-3.37927 -1.88865 1.88474 0.2945 -0.9556 0.0002 204 168 112
-3.41903 -1.90089 1.96494 0.2945 -0.9556 0.0002 204 168 112
-3.08809 -1.79906 1.31336 0.2945 -0.9556 0.0002 204 168 112
-3.86604 -2.03844 2.79207 0.2945 -0.9556 0.0002 204 168 112
-4.15622 -2.1278 3.08168 0.2945 -0.9556 0.0002 204 168 112
-3.72304 -1.99451 2.25477 0.2945 -0.9556 0.0002 204 168 112
-3.74976 -2.00278 2.09545 0.2945 -0.9556 0.0002 204 168 112
-3.54072 -1.93822 2.66179 0.2945 -0.9556 0.0002 204 168 112
-3.6247 -1.96406 2.80007 0.2945 -0.9556 0.0002 204 168 112
-3.6376 -1.96818 2.24008 0.2945 -0.9556 0.0002 204 168 112
-2.81404 -1.71421 2.8998 0.2945 -0.9556 0.0002 204 168 112
-3.96006 -2.0675 2.44344 0.2945 -0.9556 0.0002 204 168 112
-3.40952 -1.89787 2.32631 0.2945 -0.9556 0.0002 204 168 112
-2.85349 -1.72646 2.55398 0.2945 -0.9556 0.0002 204 168 112
-2.98087 -1.76613 0.839372 0.2945 -0.9556 0.0002 204 168 112
-2.76258 -1.69846 2.46408 0.2945 -0.9556 0.0002 204 168 112
-3.55203 -1.94171 2.63955 0.2945 -0.9556 0.0002 204 168 112
-3.18475 -1.82892 1.03548 0.2945 -0.9556 0.0002 204 168 112
-2.77333 -1.70179 2.38087 0.2945 -0.9556 0.0002 204 168 112
-3.53716 -1.93736 1.6941 0.2945 -0.9556 0.0002 204 168 112
-2.88827 -1.73709 2.88889 0.2945 -0.9556 0.0002 204 168 112
-3.60114 -1.95685 2.6213 0.2945 -0.9556 0.0002 204 168 112
-2.7731 -1.70209 0.89102 0.2945 -0.9556 0.0002 204 168 112
-3.93497 -2.05971 2.67906 0.2945 -0.9556 0.0002 204 168 112
-2.8309 -1.71977 1.43356 0.2945 -0.9556 0.0002 204 168 112
-3.27233 -1.85552 2.60158 0.2945 -0.9556 0.0002 204 168 112
-3.55126 -1.94153 2.40722 0.2945 -0.9556 0.0002 204 168 112
-2.92015 -1.74743 0.819069 0.2945 -0.9556 0.0002 204 168 112
-3.98631 -2.07546 2.98043 0.2945 -0.9556 0.0002 204 168 112
-3.6336 -1.96682 2.74068 0.2945 -0.9556 0.0002 204 168 112
-3.38061 -1.88888 2.62692 0.2945 -0.9556 0.0002 204 168 112
-4.01509 -2.08431 3.06807 0.2945 -0.9556 0.0002 204 168 112
-4.07078 -2.10146 3.10717 0.2945 -0.9556 0.0002 204 168 112
-3.00389 -1.77289 2.22138 0.2945 -0.9556 0.0002 204 168 112
-3.32656 -1.87216 2.90366 0.2945 -0.9556 0.0002 204 168 112
-3.28778 -1.86031 2.4956 0.2945 -0.9556 0.0002 204 168 112
-3.17574 -1.82619 0.832359 0.2945 -0.9556 0.0002 204 168 112
-3.78875 -2.01457 3.00756 0.2945 -0.9556 0.0002 204 168 112
-3.33682 -1.8756 1.76231 0.2945 -0.9556 0.0002 204 168 112
-3.20064 -1.83348 2.36821 0.2945 -0.9556 0.0002 204 168 112
-3.61762 -1.9621 1.91113 0.2945 -0.9556 0.0002 204 168 112
-3.00931 -1.77463 1.9327 0.2945 -0.9556 0.0002 204 168 112
-3.82966 -2.02723 2.79729 0.2945 -0.9556 0.0002 204 168 112
-3.22959 -1.84227 2.91256 0.2945 -0.9556 0.0002 204 168 112
-3.28334 -1.85884 2.89707 0.2945 -0.9556 0.0002 204 168 112
-2.92625 -1.74888 2.57454 0.2945 -0.9556 0.0002 204 168 112
-3.01928 -1.77793 0.999506 0.2945 -0.9556 0.0002 204 168 112
-3.10361 -1.80363 2.16724 0.2945 -0.9556 0.0002 204 168 112
-3.98885 -2.07633 2.64423 0.2945 -0.9556 0.0002 204 168 112
-3.1055 -1.80412 2.56887 0.2945 -0.9556 0.0002 204 168 112
-2.88077 -1.7351 1.58842 0.2945 -0.9556 0.0002 204 168 112
-3.22539 -1.84093 3.12261 0.2945 -0.9556 0.0002 204 168 112
-3.56937 -1.94713 2.33476 0.2945 -0.9556 0.0002 204 168 112
-3.72276 -1.99436 2.47882 0.2945 -0.9556 0.0002 204 168 112
-2.78748 -1.7067 0.159261 0.2945 -0.9556 0.0002 204 168 112
-2.74191 -1.6925 0.804262 0.2945 -0.9556 0.0002 204 168 112
-3.18092 -1.82769 1.22552 0.2945 -0.9556 0.0002 204 168 112
-2.78409 -1.7056 0.374717 0.2945 -0.9556 0.0002 204 168 112
-3.49495 -1.92407 2.81927 0.2945 -0.9556 0.0002 204 168 112
-2.90156 -1.74119 2.88995 0.2945 -0.9556 0.0002 204 168 112
-3.68287 -1.98209 2.39795 0.2945 -0.9556 0.0002 204 168 112
-3.50112 -1.92626 1.67315 0.2945 -0.9556 0.0002 204 168 112
-4.13273 -2.12062 2.83543 0.2945 -0.9556 0.0002 204 168 112
-2.84699 -1.72479 1.18815 0.2945 -0.9556 0.0002 204 168 112
-3.30084 -1.86442 2.16628 0.2945 -0.9556 0.0002 204 168 112
-3.64638 -1.97088 2.2424 0.2945 -0.9556 0.0002 204 168 112
-3.15348 -1.81879 3.0164 0.2945 -0.9556 0.0002 204 168 112
-2.97801 -1.76535 0.425128 0.2945 -0.9556 0.0002 204 168 112
-3.63771 -1.96833 1.7681 0.2945 -0.9556 0.0002 204 168 112
-4.18886 -2.13785 3.09459 0.2945 -0.9556 0.0002 204 168 112
-3.4536 -1.91153 2.01831 0.2945 -0.9556 0.0002 204 168 112
-3.81498 -2.02268 2.89488 0.2945 -0.9556 0.0002 204 168 112
-3.09189 -1.79989 2.72083 0.2945 -0.9556 0.0002 204 168 112
-3.1143 -1.80687 2.38697 0.2945 -0.9556 0.0002 204 168 112
-3.10195 -1.80334 1.26091 0.2945 -0.9556 0.0002 204 168 112
-4.12377 -2.11781 3.02622 0.2945 -0.9556 0.0002 204 168 112
-2.94445 -1.75452 2.42367 0.2945 -0.9556 0.0002 204 168 112
-3.11965 -1.80853 2.35061 0.2945 -0.9556 0.0002 204 168 112
-3.27475 -1.85665 1.03568 0.2945 -0.9556 0.0002 204 168 112
-3.17119 -1.82446 2.14726 0.2945 -0.9556 0.0002 204 168 112
-3.40345 -1.89587 2.84301 0.2945 -0.9556 0.0002 204 168 112
-3.2753 -1.85666 1.70801 0.2945 -0.9556 0.0002 204 168 112
-3.90484 -2.05032 3.1308 0.2945 -0.9556 0.0002 204 168 112
-3.81321 -2.02213 2.91827 0.2945 -0.9556 0.0002 204 168 112
-3.36763 -1.88482 2.89388 0.2945 -0.9556 0.0002 204 168 112
-3.77523 -2.01043 2.89702 0.2945 -0.9556 0.0002 204 168 112
-2.74685 -1.69413 0.356983 0.2945 -0.9556 0.0002 204 168 112
-3.6007 -1.95683 2.14013 0.2945 -0.9556 0.0002 204 168 112
-2.8005 -1.7102 2.25368 0.2945 -0.9556 0.0002 204 168 112
-2.84822 -1.72485 2.49778 0.2945 -0.9556 0.0002 204 168 112
-3.48038 -1.91961 2.69322 0.2945 -0.9556 0.0002 204 168 112
-3.55781 -1.94363 2.08227 0.2945 -0.9556 0.0002 204 168 112
-3.6676 -1.9774 2.34929 0.2945 -0.9556 0.0002 204 168 112
-3.72775 -1.99591 2.42995 0.2945 -0.9556 0.0002 204 168 112
-3.04451 -1.78567 1.13939 0.2945 -0.9556 0.0002 204 168 112
-4.17895 -2.13484 2.94097 0.2945 -0.9556 0.0002 204 168 112
-3.2125 -1.83699 2.98419 0.2945 -0.9556 0.0002 204 168 112
-3.4426 -1.90818 1.85655 0.2945 -0.9556 0.0002 204 168 112
-4.01941 -2.08567 2.92413 0.2945 -0.9556 0.0002 204 168 112
-2.75826 -1.69698 3.07182 0.2945 -0.9556 0.0002 204 168 112
-3.47042 -1.9168 1.66111 0.2945 -0.9556 0.0002 204 168 112
-3.043 -1.7849 2.37022 0.2945 -0.9556 0.0002 204 168 112
-3.13634 -1.81355 2.83819 0.2945 -0.9556 0.0002 204 168 112
-2.77713 -1.70331 0.992875 0.2945 -0.9556 0.0002 204 168 112
-2.93548 -1.75216 0.764953 0.2945 -0.9556 0.0002 204 168 112
-2.8551 -1.72707 2.07726 0.2945 -0.9556 0.0002 204 168 112
-3.53767 -1.9375 1.73592 0.2945 -0.9556 0.0002 204 168 112
-3.18435 -1.82868 1.46962 0.2945 -0.9556 0.0002 204 168 112
-2.91635 -1.74584 2.50953 0.2945 -0.9556 0.0002 204 168 112
-2.71681 -1.68443 2.15991 0.2945 -0.9556 0.0002 204 168 112
-3.23786 -1.84483 2.87402 0.2945 -0.9556 0.0002 204 168 112
-2.80061 -1.71065 0.53282 0.2945 -0.9556 0.0002 204 168 112
-3.55103 -1.94156 2.00569 0.2945 -0.9556 0.0002 204 168 112
-3.18555 -1.82904 1.52562 0.2945 -0.9556 0.0002 204 168 112
-3.24941 -1.84849 2.46023 0.2945 -0.9556 0.0002 204 168 112
-3.15932 -1.82094 1.59577 0.2945 -0.9556 0.0002 204 168 112
-3.45573 -1.91211 2.31911 0.2945 -0.9556 0.0002 204 168 112
-3.3586 -1.88225 2.02814 0.2945 -0.9556 0.0002 204 168 112
-3.30377 -1.86519 2.68866 0.2945 -0.9556 0.0002 204 168 112
-2.87582 -1.73362 1.38626 0.2945 -0.9556 0.0002 204 168 112
-3.67074 -1.97826 2.78095 0.2945 -0.9556 0.0002 204 168 112
-2.9574 -1.75853 2.36659 0.2945 -0.9556 0.0002 204 168 112
-3.79369 -2.01621 2.53402 0.2945 -0.9556 0.0002 204 168 112
-3.19765 -1.8326 2.21736 0.2945 -0.9556 0.0002 204 168 112
-3.39311 -1.89277 2.48581 0.2945 -0.9556 0.0002 204 168 112
-3.14175 -1.81533 2.40737 0.2945 -0.9556 0.0002 204 168 112
-4.03745 -2.0912 3.06676 0.2945 -0.9556 0.0002 204 168 112
-3.19505 -1.83174 2.44348 0.2945 -0.9556 0.0002 204 168 112
-3.00064 -1.77172 2.89153 0.2945 -0.9556 0.0002 204 168 112
-3.16034 -1.82104 2.45547 0.2945 -0.9556 0.0002 204 168 112
-3.45667 -1.91244 2.15228 0.2945 -0.9556 0.0002 204 168 112
-3.4459 -1.90924 1.6562 0.2945 -0.9556 0.0002 204 168 112
-3.12026 -1.80872 2.32697 0.2945 -0.9556 0.0002 204 168 112
-3.0515 -1.78767 1.78093 0.2945 -0.9556 0.0002 204 168 112
-3.23672 -1.84463 2.26203 0.2945 -0.9556 0.0002 204 168 112
-2.87364 -1.73302 1.11554 0.2945 -0.9556 0.0002 204 168 112
-2.89648 -1.74023 0.398166 0.2945 -0.9556 0.0002 204 168 112
-3.6443 -1.97003 3.08921 0.2945 -0.9556 0.0002 204 168 112
-3.28577 -1.85967 2.57258 0.2945 -0.9556 0.0002 204 168 112
-2.79054 -1.70693 3.08752 0.2945 -0.9556 0.0002 204 168 112
-3.20339 -1.8347 0.873546 0.2945 -0.9556 0.0002 204 168 112
-3.01599 -1.7767 1.86537 0.2945 -0.9556 0.0002 204 168 112
-3.72384 -1.99455 3.05011 0.2945 -0.9556 0.0002 204 168 112
-3.40752 -1.89722 2.43959 0.2945 -0.9556 0.0002 204 168 112
-3.71527 -1.99207 2.42821 0.2945 -0.9556 0.0002 204 168 112
-2.93649 -1.75236 1.24457 0.2945 -0.9556 0.0002 204 168 112
-2.8838 -1.7358 2.52424 0.2945 -0.9556 0.0002 204 168 112
-2.74569 -1.69349 1.53033 0.2945 -0.9556 0.0002 204 168 112
-3.2981 -1.86382 1.14696 0.2945 -0.9556 0.0002 204 168 112
-3.55516 -1.9426 2.9326 0.2945 -0.9556 0.0002 204 168 112
-2.78574 -1.7057 2.04296 0.2945 -0.9556 0.0002 204 168 112
-3.81981 -2.02435 2.15274 0.2945 -0.9556 0.0002 204 168 112
-3.45728 -1.91253 2.56029 0.2945 -0.9556 0.0002 204 168 112
-4.11307 -2.1145 3.06365 0.2945 -0.9556 0.0002 204 168 112
-3.43783 -1.90678 1.5499 0.2945 -0.9556 0.0002 204 168 112
-3.96826 -2.06998 2.65921 0.2945 -0.9556 0.0002 204 168 112
